0.685642 -0.0711694 0.704985
0.652297 0.0099118 0.699895
0.628851 0.0660911 0.698659
0.557862 0.100005 0.771584
0.514496 0.149204 0.76598
0.426723 0.229594 0.747221
0.321412 0.307212 0.719027
0.232359 0.33721 0.71784
0.148384 0.361739 0.707892
0.0781664 0.376356 0.703933
0.0321333 0.378167 0.704777
-0.0062453 0.378528 0.705224
-0.044639 0.378901 0.705603
-0.0903859 0.377971 0.705922
-0.161221 0.36459 0.711495
-0.246402 0.341236 0.723353
-0.336449 0.312425 0.726565
-0.445287 0.234219 0.756411
-0.536148 0.151975 0.775989
-0.613944 0.14188 0.710969
-0.675467 0.104062 0.652024
-0.714282 0.0318708 0.645631
-0.752449 -0.0458821 0.636906
-0.7768 -0.131668 0.631693
-0.785617 -0.230829 0.628138
-0.818766 -0.315692 0.508015
-0.740695 -0.541113 0.385916
-0.639907 -0.674708 0.412482
-0.572567 -0.740481 0.3605
-0.501506 -0.792029 0.326592
-0.297573 -0.925294 0.346954
-0.171739 -0.94896 0.297285
-0.0713096 -0.951842 0.248588
-0.0215546 -0.952295 0.241203
0.0283512 -0.953769 0.250271
0.129639 -0.954461 0.302785
0.198501 -0.944757 0.252216
0.326611 -0.894219 0.238793
0.392895 -0.855061 0.296379
0.517961 -0.746355 0.192036
0.5762 -0.707405 0.245798
0.664019 -0.60089 0.224194
0.734369 -0.52187 0.319409
0.819415 -0.309653 0.437543
0.83435 -0.191139 0.452521
0.802644 -0.101951 0.517315
0.72997 -0.0592936 0.619321
0.693883 0.0180676 0.628634
0.6571 0.090216 0.63581
0.594312 0.134256 0.697723
0.538876 0.20274 0.687615
0.460627 0.294449 0.657641
0.334973 0.399863 0.614922
0.171529 0.439039 0.592908
0.0940633 0.449783 0.590332
-0.0028248 0.451882 0.596224
-0.0453773 0.452512 0.596769
-0.177465 0.444252 0.597277
-0.268371 0.429984 0.610401
-0.343034 0.409175 0.623274
-0.473554 0.30474 0.66893
-0.555962 0.21171 0.700146
-0.630323 0.17886 0.654086
-0.695089 0.151614 0.583143
-0.745174 0.0819991 0.560646
-0.797352 0.00813742 0.522975
-0.830777 -0.194786 0.528298
-0.824206 -0.0760336 0.514507
-0.788193 -0.438758 0.453616
-0.847303 -0.283099 0.434662
-0.858499 -0.164169 0.449597
-0.76865 -0.497929 0.316815
-0.676207 -0.619227 0.299818
-0.615316 -0.680551 0.232656
-0.433699 -0.838376 0.28216
-0.558102 -0.723968 0.182797
-0.241339 -0.935959 0.244593
-0.369011 -0.879351 0.227265
-0.320311 -0.903353 0.137521
-0.0911695 -0.919763 0.0830485
-0.0223682 -0.929192 0.107234
0.0461922 -0.923153 0.0850798
0.184427 -0.930066 0.0294816
0.270135 -0.912109 -0.0367746
0.276404 -0.917291 0.146723
0.408612 -0.83342 0.0695022
0.461998 -0.787642 0.134957
0.552603 -0.705355 0.0930704
0.60338 -0.66208 0.148656
0.756175 -0.479953 0.254854
0.678557 -0.562025 0.152419
0.614699 -0.629983 0.0746231
0.786235 -0.424802 0.390633
0.80861 -0.384555 0.329516
0.83569 -0.275855 0.376151
0.845516 -0.16718 0.397351
0.830985 -0.0692666 0.435555
0.778458 -0.0169541 0.525691
0.728281 0.0587185 0.557079
0.680111 0.130567 0.574161
0.629047 0.206582 0.584061
0.614234 0.165014 0.638717
0.555315 0.244529 0.629974
0.386115 0.362375 0.632886
0.4813 0.333276 0.605188
0.405824 0.402983 0.574859
0.261486 0.422379 0.603836
0.339042 0.445629 0.537549
0.269427 0.467655 0.503598
0.1839 0.477359 0.503194
0.0986595 0.474495 0.511662
0.0397128 0.451245 0.59568
0.0418671 0.475762 0.517762
-0.00204128 0.476441 0.517676
-0.045965 0.47712 0.517584
-0.0995472 0.452708 0.592835
-0.102742 0.477616 0.511252
-0.2736 0.476092 0.502503
-0.187817 0.483147 0.502441
-0.343998 0.45625 0.53616
-0.396149 0.372257 0.642541
-0.412227 0.415746 0.580084
-0.490551 0.347214 0.617547
-0.568484 0.258509 0.64396
-0.641806 0.22569 0.595759
-0.709626 0.183289 0.532966
-0.658097 0.255554 0.546635
-0.762049 0.124644 0.50413
-0.815346 0.0677187 0.463565
-0.851255 -0.0427923 0.432386
-0.817653 -0.399245 0.387862
-0.862281 -0.248805 0.373232
-0.8384 -0.358637 0.326414
-0.868705 -0.14021 0.394127
-0.857704 -0.0318402 0.389759
-0.788719 -0.455645 0.251959
-0.713095 -0.540403 0.149586
-0.700057 -0.579689 0.221416
-0.641037 -0.642733 0.146105
-0.503495 -0.769758 0.129683
-0.591418 -0.687575 0.0907452
-0.230022 -0.919989 0.02433
-0.314977 -0.903005 -0.0379678
-0.457055 -0.827406 -0.0742501
-0.451374 -0.820057 0.0677401
-0.407345 -0.867597 -0.140671
-0.108724 -0.924297 -0.0280374
-0.221901 -0.923966 -0.0765994
-0.0227299 -0.922504 -0.00380878
0.0632791 -0.926964 -0.0276888
0.176607 -0.930158 -0.075804
0.36398 -0.879577 -0.139105
0.254328 -0.915315 -0.136015
0.414639 -0.840952 -0.0724697
0.491095 -0.764979 0.0195636
0.561086 -0.687502 0.0167004
0.493581 -0.752186 -0.071931
0.760648 -0.439461 0.191387
0.681512 -0.527371 0.0885184
0.811131 -0.34093 0.265102
0.616284 -0.60152 0.00926011
0.554351 -0.669477 -0.0672871
0.833096 -0.23157 0.309944
0.837948 -0.0585226 0.392952
0.839471 -0.130249 0.337654
0.833341 0.011362 0.421115
0.837917 0.0157181 0.385586
0.798472 0.0423273 0.466593
0.746955 0.100611 0.506736
0.696325 0.160896 0.535395
0.647096 0.23466 0.54746
0.567822 0.285589 0.584863
0.578581 0.314279 0.562022
0.505078 0.373089 0.566795
0.424358 0.438874 0.523201
0.346109 0.472085 0.433517
0.264635 0.503882 0.326929
0.178671 0.502463 0.34841
0.103964 0.500762 0.364954
0.0440826 0.500462 0.37204
-0.00136323 0.501153 0.372431
-0.0468088 0.501875 0.371856
-0.106629 0.504029 0.364538
-0.181172 0.508055 0.347676
-0.26697 0.512136 0.325839
-0.349815 0.482902 0.432104
-0.42942 0.452151 0.52147
-0.51228 0.389046 0.570711
-0.578022 0.30299 0.596029
-0.58756 0.332597 0.565155
-0.715714 0.206191 0.517162
-0.768455 0.155983 0.486319
-0.731175 0.263979 0.493111
-0.67592 0.321162 0.513803
-0.609409 0.383698 0.524302
-0.823361 0.106338 0.445259
-0.85101 0.0378668 0.417952
-0.839306 -0.31497 0.262
-0.858004 -0.204973 0.30675
-0.861271 -0.103487 0.33446
-0.849126 -0.0105788 0.345082
-0.855324 0.0423577 0.382404
-0.851059 0.0520432 0.364734
-0.79149 -0.415336 0.188224
-0.714704 -0.505675 0.0856669
-0.651055 -0.610306 0.0720474
-0.651495 -0.581812 0.00668433
-0.599027 -0.669477 0.0143387
-0.531491 -0.749096 0.0174834
-0.298869 -0.906712 -0.137141
-0.367415 -0.878384 -0.201091
-0.421449 -0.819635 -0.213377
-0.468868 -0.790689 -0.15795
-0.37968 -0.832729 -0.270981
-0.120372 -0.93126 -0.135049
-0.217652 -0.92571 -0.167825
-0.283138 -0.907961 -0.208745
-0.0226244 -0.928831 -0.102652
0.0751378 -0.934288 -0.134657
0.172689 -0.931786 -0.167024
0.323974 -0.889128 -0.199678
0.427929 -0.804627 -0.156126
0.379861 -0.832092 -0.211749
0.337927 -0.843876 -0.269519
0.238854 -0.916086 -0.20768
0.482898 -0.729976 -0.14433
0.418345 -0.775381 -0.22305
0.793889 -0.293874 0.197609
0.747646 -0.400616 0.128808
0.672861 -0.496919 0.0324797
0.608097 -0.576703 -0.0474573
0.811626 -0.176675 0.238939
0.535877 -0.647071 -0.149739
0.471853 -0.693363 -0.217384
0.816233 -0.0802369 0.27357
0.83022 -0.0369919 0.348245
0.834044 0.0255382 0.367897
0.841398 0.0507216 0.40927
0.845437 0.055543 0.375233
0.807753 0.0806775 0.44833
0.839545 0.0696765 0.358854
0.754291 0.132029 0.489183
0.703043 0.183877 0.51983
0.666883 0.300035 0.51633
0.720401 0.241133 0.495852
0.602346 0.364621 0.526578
0.531628 0.434628 0.516348
0.461787 0.48598 0.466759
0.396828 0.517318 0.37374
0.340157 0.53757 0.254645
0.231741 0.504451 0.149947
0.17052 0.50338 0.183403
0.106374 0.507541 0.207466
0.0451674 0.510961 0.22975
-0.000911142 0.511683 0.229646
-0.0469896 0.512393 0.229554
-0.108182 0.510869 0.207026
-0.172326 0.508716 0.182705
-0.233353 0.511683 0.148999
-0.341105 0.548149 0.253257
-0.398861 0.52969 0.372113
-0.465146 0.500382 0.464874
-0.536479 0.451429 0.514341
-0.784051 0.209072 0.464556
-0.770878 0.347202 0.450484
-0.812152 0.282891 0.433279
-0.727259 0.413232 0.459508
-0.671594 0.475297 0.457704
-0.857777 0.0774531 0.406076
-0.835476 0.157947 0.428097
-0.820229 -0.268788 0.194324
-0.836228 -0.054564 0.270192
-0.834466 -0.151088 0.235581
-0.825546 0.0208088 0.29819
-0.832869 0.0449459 0.356187
-0.861546 0.082409 0.372027
-0.85514 0.0963283 0.35566
-0.843479 0.094762 0.358762
-0.820981 0.0933915 0.36217
-0.837238 0.0515661 0.366992
-0.777027 -0.376913 0.125706
-0.704897 -0.475505 0.0296774
-0.642318 -0.557265 -0.0500028
-0.591388 -0.651666 -0.0696244
-0.533194 -0.736229 -0.0740236
-0.521547 -0.714368 -0.14638
-0.33779 -0.882826 -0.255655
-0.352346 -0.836932 -0.31222
-0.409334 -0.784889 -0.274763
-0.372809 -0.796397 -0.322829
-0.458094 -0.761755 -0.224824
-0.347344 -0.806419 -0.354486
-0.115053 -0.957856 -0.277173
-0.0228052 -0.962617 -0.266068
-0.205236 -0.949339 -0.292812
-0.259782 -0.92445 -0.310806
0.069578 -0.960732 -0.276794
0.160032 -0.955005 -0.292072
0.215407 -0.931829 -0.309839
0.310653 -0.847235 -0.310867
0.294455 -0.892652 -0.254376
0.369088 -0.796985 -0.273178
0.332412 -0.807356 -0.321397
0.306781 -0.816588 -0.353164
0.404257 -0.740237 -0.28495
0.351925 -0.757282 -0.328073
0.772988 -0.240894 0.125932
0.788841 -0.118195 0.175657
0.73038 -0.373572 0.0598289
0.660354 -0.468438 -0.028882
0.598681 -0.545273 -0.106029
0.522346 -0.611254 -0.226133
0.789716 -0.0325927 0.213927
0.407873 -0.751494 -0.271765
0.466036 -0.65806 -0.280428
0.807796 -0.00468676 0.301433
0.815664 0.0190038 0.359277
0.820198 0.0254771 0.370112
0.827822 0.0684713 0.361914
0.805281 0.0678042 0.36523
0.852338 0.101425 0.396269
0.821556 0.131864 0.431211
0.855923 0.106289 0.364398
0.850576 0.139169 0.353629
0.771636 0.184587 0.467481
0.803862 0.338446 0.387501
0.779211 0.295275 0.405354
0.75396 0.264701 0.418827
0.81887 0.0911033 0.363675
0.721306 0.390447 0.462237
0.762863 0.323065 0.453378
0.667617 0.454231 0.460218
0.607167 0.526453 0.435188
0.53758 0.564815 0.391086
0.47776 0.603361 0.304774
0.421932 0.618682 0.200687
0.296851 0.537301 0.11829
0.371544 0.609731 0.087882
0.16749 0.491584 0.0296161
0.234755 0.483538 0.0144427
0.0456948 0.501092 0.0768258
0.107685 0.499043 0.0529703
-0.000745395 0.501802 0.0767343
-0.0472006 0.502524 0.0766424
-0.109116 0.50242 0.0525359
-0.169027 0.496828 0.0289247
-0.297272 0.54654 0.117085
-0.236457 0.490862 0.0134759
-0.420093 0.631763 0.198968
-0.538137 0.581525 0.388902
-0.476809 0.618199 0.302834
-0.609063 0.545347 0.432704
-0.853739 0.223567 0.40689
-0.821495 0.426613 0.407086
-0.793675 0.516358 0.401812
-0.839 0.350695 0.408536
-0.876237 0.282047 0.387966
-0.75251 0.592887 0.384154
-0.867077 0.128468 0.393044
-0.870375 0.133461 0.361143
-0.809638 -0.0933609 0.172383
-0.797401 -0.216482 0.122738
-0.758659 -0.350426 0.0568002
-0.795516 0.0550413 0.248362
-0.80801 -0.00775815 0.210673
-0.809999 0.0675657 0.317947
-0.795198 0.0901365 0.365242
-0.79083 0.0835226 0.354424
-0.863957 0.166139 0.350405
-0.787923 0.319926 0.402418
-0.763695 0.288587 0.415976
-0.833836 0.117113 0.360573
-0.805569 0.127098 0.37267
-0.767023 0.139304 0.38197
-0.691246 -0.447434 -0.031635
-0.631695 -0.526153 -0.108544
-0.57189 -0.629848 -0.152003
-0.556942 -0.594484 -0.228336
-0.509055 -0.678116 -0.219385
-0.44268 -0.72707 -0.286663
-0.297694 -0.897247 -0.328073
-0.31454 -0.820314 -0.397975
-0.31118 -0.848985 -0.366435
-0.390724 -0.745737 -0.329578
-0.363994 -0.761951 -0.359386
-0.334928 -0.775815 -0.391374
-0.312114 -0.79168 -0.427252
-0.0964886 -0.959796 -0.369543
-0.180177 -0.950441 -0.380917
-0.0225943 -0.961197 -0.35872
0.0513451 -0.96209 -0.369237
-0.244548 -0.921391 -0.3971
0.13532 -0.955354 -0.380269
0.200626 -0.928304 -0.396195
0.254223 -0.905825 -0.326941
0.269352 -0.857998 -0.365248
0.273736 -0.829455 -0.396782
0.324818 -0.772664 -0.357985
0.29548 -0.785611 -0.390095
0.27232 -0.800754 -0.426059
0.394975 -0.732117 -0.286045
0.389203 -0.723044 -0.292286
0.347796 -0.750473 -0.320327
0.754474 -0.165326 0.0642281
0.764839 -0.0560263 0.120206
0.714919 -0.33584 -0.00957848
0.643963 -0.441951 -0.0956032
0.58191 -0.49654 -0.189252
0.516138 -0.554463 -0.281224
0.452686 -0.600786 -0.345987
0.779033 0.0305738 0.251568
0.743957 0.0685141 0.198484
0.759895 0.0128242 0.158898
0.368048 -0.759919 -0.32461
0.356581 -0.757374 -0.312777
0.435433 -0.679181 -0.311706
0.390876 -0.709137 -0.36523
0.79365 0.0425352 0.32114
0.774861 0.0588837 0.35738
0.779407 0.065363 0.368209
0.790891 0.101982 0.375674
0.866172 0.163472 0.382153
0.869366 0.167993 0.353042
0.841955 0.196897 0.410072
0.802161 0.2575 0.436307
0.862874 0.212309 0.343516
0.827913 0.394246 0.365272
0.789478 0.511818 0.353641
0.758194 0.44944 0.383811
0.729144 0.397256 0.407116
0.702094 0.355517 0.423514
0.727755 0.238061 0.42568
0.791148 0.491419 0.404797
0.816117 0.400842 0.410163
0.752229 0.569502 0.387213
0.831211 0.324417 0.411668
0.69958 0.634865 0.357441
0.660428 0.672946 0.335665
0.626465 0.694055 0.295223
0.567566 0.725216 0.224628
0.506223 0.724494 0.143486
0.4425 0.691901 0.0518263
0.279296 0.523149 0.0144547
0.344105 0.59504 0.00342951
0.398576 0.656641 -0.00279313
0.176261 0.46678 -0.0640323
0.27235 0.47537 -0.045573
0.252867 0.461494 -0.0577364
0.0453632 0.474177 -0.0272789
0.107083 0.473002 -0.046717
-0.000956358 0.474887 -0.027389
-0.0472759 0.475609 -0.0274809
-0.108935 0.476368 -0.0471575
-0.178188 0.472299 -0.0647544
-0.25496 0.469374 -0.0587582
-0.369569 0.621246 0.0863646
-0.342235 0.605693 0.00202838
-0.279747 0.531831 0.0133107
-0.274037 0.483869 -0.0466864
-0.500828 0.740151 0.141437
-0.437768 0.705582 0.0500335
-0.622579 0.713481 0.292678
-0.562441 0.74277 0.222322
-0.657356 0.693425 0.332986
-0.697738 0.656579 0.35459
-0.878886 0.190944 0.378868
-0.892646 0.280181 0.365456
-0.891392 0.505283 0.358059
-0.88662 0.64567 0.329412
-0.891967 0.399655 0.374389
-0.864471 0.763278 0.288896
-0.824824 0.856493 0.237
-0.881829 0.195557 0.349756
-0.873918 0.239628 0.340248
-0.776562 0.0367044 0.155766
-0.783475 -0.0319565 0.117054
-0.776274 -0.141537 0.0611079
-0.741754 -0.313208 -0.0125335
-0.759051 0.0918865 0.195425
-0.777449 0.094401 0.285562
-0.753777 0.110358 0.322327
-0.833426 0.420188 0.361901
-0.811124 0.36385 0.384472
-0.734669 0.420298 0.404363
-0.738346 0.261134 0.422926
-0.709008 0.377714 0.420858
-0.711872 0.237535 0.423269
-0.716601 0.147852 0.399462
-0.678483 0.215307 0.430458
-0.707895 0.129117 0.361461
-0.673766 -0.421473 -0.0982832
-0.613071 -0.477977 -0.191693
-0.548745 -0.537919 -0.283396
-0.501581 -0.623668 -0.290566
-0.486513 -0.586181 -0.347902
-0.44616 -0.707466 -0.298888
-0.433157 -0.71925 -0.287734
-0.276086 -0.80396 -0.494665
-0.274986 -0.837868 -0.471072
-0.265177 -0.870565 -0.444065
-0.386415 -0.739062 -0.321832
-0.35557 -0.754315 -0.356297
-0.33104 -0.769519 -0.388057
-0.305138 -0.78353 -0.424431
-0.270903 -0.79819 -0.489121
-0.0923599 -0.951206 -0.473122
-0.0222628 -0.954026 -0.47057
-0.168545 -0.941851 -0.461699
0.0479097 -0.953396 -0.472834
0.12429 -0.946403 -0.461093
0.223032 -0.878158 -0.443074
0.233957 -0.845779 -0.470032
0.236201 -0.811932 -0.493624
0.316621 -0.764753 -0.354926
0.291773 -0.779205 -0.386791
0.265585 -0.79239 -0.423257
0.345672 -0.739606 -0.311651
0.297167 -0.644979 -0.254523
0.310081 -0.642611 -0.105515
0.333678 -0.739967 -0.334056
0.733451 -0.0420395 0.0464296
0.689784 -0.299301 -0.0895888
0.724274 -0.1761 -0.0292551
0.712086 -0.0644025 -0.0263001
0.741301 0.00721969 0.084431
0.629469 -0.389498 -0.171784
0.570564 -0.454127 -0.247083
0.505891 -0.504696 -0.330948
0.444112 -0.54241 -0.392775
0.399118 -0.588365 -0.444806
0.403051 -0.65185 -0.401426
0.762049 0.0704719 0.2887
0.719844 0.10501 0.237043
0.698858 0.124387 0.152138
0.723778 0.0684835 0.110502
0.667195 0.161832 0.19184
0.31873 -0.786559 -0.403953
0.307414 -0.781554 -0.398428
0.340353 -0.750968 -0.439562
0.299473 -0.761186 -0.40213
0.340503 -0.729976 -0.307337
0.351096 -0.708402 -0.472394
0.738737 0.0871569 0.325356
0.752724 0.115393 0.384815
0.885702 0.255016 0.341992
0.882777 0.252244 0.368797
0.866355 0.254624 0.391251
0.875607 0.287076 0.334821
0.851512 0.428148 0.348006
0.854932 0.490679 0.341558
0.741527 0.597359 0.312489
0.702969 0.518071 0.350417
0.830355 0.600418 0.313921
0.671582 0.457486 0.377344
0.67633 0.320122 0.432691
0.647353 0.415593 0.39327
0.700528 0.215325 0.425924
0.888125 0.618082 0.333028
0.888639 0.477267 0.361399
0.869788 0.736321 0.292433
0.885818 0.371688 0.377736
0.794311 0.871513 0.214729
0.833292 0.830722 0.240371
0.762636 0.891508 0.192715
0.722469 0.891251 0.16714
0.664215 0.881682 0.12893
0.596466 0.845522 0.0768565
0.462766 0.721373 -0.0231244
0.515369 0.775393 0.0160517
0.299217 0.511371 -0.0386407
0.348022 0.574807 -0.0386407
0.394523 0.632185 -0.0393383
0.183689 0.418732 -0.148056
0.254645 0.418414 -0.130515
0.290673 0.468316 -0.0697896
0.284721 0.455076 -0.0815124
0.299699 0.41519 -0.1184
0.0442484 0.421681 -0.141785
-0.00154403 0.422403 -0.141889
0.104867 0.418983 -0.152951
-0.0473212 0.423113 -0.141981
-0.107955 0.422287 -0.153385
-0.186762 0.424483 -0.148809
-0.257763 0.426386 -0.131567
-0.28689 0.463947 -0.082675
-0.29248 0.477389 -0.0709766
-0.394748 0.668969 -0.00440832
-0.391312 0.644404 -0.0409473
-0.34662 0.585594 -0.0400604
-0.299804 0.520683 -0.0398646
-0.586987 0.86392 0.0744459
-0.50788 0.791289 0.0139591
-0.456814 0.73566 -0.0250091
-0.711872 0.913553 0.164221
-0.653802 0.90216 0.126251
-0.752137 0.915046 0.189637
-0.784503 0.896042 0.211504
-0.908346 0.396216 0.352815
-0.895375 0.283038 0.338651
-0.915321 0.529255 0.331144
-0.913382 0.679725 0.30098
-0.896611 0.808285 0.255832
-0.865058 0.914923 0.195713
-0.884252 0.314774 0.331505
-0.73853 0.0912072 0.107534
-0.712055 0.146328 0.149256
-0.757833 0.0305125 0.0813903
-0.751366 -0.0189732 0.0434195
-0.746049 -0.15326 -0.0322532
-0.730423 -0.0419785 -0.0292431
-0.715157 -0.277464 -0.092434
-0.733977 0.127612 0.234075
-0.679401 0.182763 0.189099
-0.701281 0.143887 0.271746
-0.855985 0.454684 0.344525
-0.762202 0.473064 0.380722
-0.791405 0.536383 0.350417
-0.857447 0.517288 0.338076
-0.675345 0.478417 0.374603
-0.652505 0.435802 0.390621
-0.684406 0.341536 0.430128
-0.660819 0.311758 0.432116
-0.633895 0.277782 0.437348
-0.638159 0.194425 0.444457
-0.656812 0.157525 0.42817
-0.639696 0.150862 0.403158
-0.652235 0.159434 0.316815
-0.657338 -0.369503 -0.174409
-0.536766 -0.488494 -0.333059
-0.600173 -0.435937 -0.249463
-0.475935 -0.528111 -0.394641
-0.471355 -0.635924 -0.326145
-0.43825 -0.638769 -0.403139
-0.432177 -0.575455 -0.446495
-0.428019 -0.696404 -0.366888
-0.427069 -0.71036 -0.293956
-0.406139 -0.700216 -0.358316
-0.383989 -0.728263 -0.313137
-0.346244 -0.632412 -0.106855
-0.371935 -0.728997 -0.335488
-0.332818 -0.635202 -0.255808
-0.208355 -0.805349 -0.584336
-0.197039 -0.848386 -0.564372
-0.182332 -0.889728 -0.53285
-0.340503 -0.73968 -0.368589
-0.316559 -0.751935 -0.396831
-0.295539 -0.76534 -0.427674
-0.261997 -0.778679 -0.489213
-0.193859 -0.782656 -0.572552
-0.203397 -0.797077 -0.579863
-0.100029 -0.899811 -0.572209
-0.0211929 -0.90008 -0.586429
0.0575682 -0.902252 -0.571891
0.139991 -0.894733 -0.532189
0.156084 -0.853868 -0.56365
0.168817 -0.81121 -0.583571
0.231169 -0.805997 -0.488094
0.30208 -0.749671 -0.367279
0.277865 -0.761168 -0.395626
0.256574 -0.773918 -0.426542
0.219476 -0.689386 -0.238113
0.273435 -0.624666 -0.103
0.212424 -0.535881 -0.223105
0.238597 -0.552517 -0.14326
0.303737 -0.611768 -0.290193
0.225925 -0.532853 -0.270223
0.252098 -0.630692 -0.119361
0.215106 -0.671423 -0.19496
0.705258 0.0691747 0.041688
0.678783 0.0463959 -0.0323021
0.662178 -0.262517 -0.171031
0.685728 -0.175182 -0.137203
0.679493 -0.0831493 -0.128166
0.653123 0.00843738 -0.132626
0.614625 -0.342362 -0.233066
0.561433 -0.4028 -0.308438
0.482581 -0.456024 -0.375325
0.414714 -0.486445 -0.432526
0.3784 -0.525621 -0.477759
0.344798 -0.654744 -0.522406
0.687508 0.122307 0.274579
0.604138 0.240937 0.153098
0.643688 0.198225 0.112521
0.681359 0.134409 0.0687925
0.562714 0.262547 0.190573
0.628832 0.180775 0.229633
0.272396 -0.825509 -0.480666
0.262842 -0.817855 -0.477338
0.290613 -0.806028 -0.514525
0.26236 -0.803238 -0.476206
0.299608 -0.777577 -0.545282
0.241611 -0.661719 -0.429436
0.269276 -0.634051 -0.347272
0.207813 -0.764104 -0.530873
0.237979 -0.683311 -0.472908
0.29658 -0.727449 -0.59133
0.693308 0.107329 0.364324
0.702547 0.125519 0.40213
0.904957 0.36735 0.331297
0.902166 0.367741 0.356217
0.894678 0.397979 0.325056
0.901671 0.484303 0.31422
0.860072 0.54315 0.329412
0.903482 0.632504 0.291472
0.790457 0.697689 0.265989
0.699157 0.652786 0.270829
0.753868 0.759026 0.225246
0.653019 0.563928 0.308047
0.617471 0.499361 0.334387
0.88085 0.715243 0.264692
0.592562 0.459083 0.349842
0.651813 0.291114 0.434588
0.62395 0.380443 0.405012
0.601361 0.351993 0.412586
0.570414 0.42542 0.362605
0.66643 0.194137 0.432991
0.916031 0.651293 0.3047
0.913186 0.500835 0.334864
0.903451 0.780306 0.259509
0.844201 0.952699 0.157436
0.875466 0.887874 0.199255
0.809619 0.974713 0.134082
0.767323 0.976358 0.107626
0.717256 0.957569 0.0780618
0.647065 0.904057 0.0415166
0.477594 0.727296 -0.0307175
0.556702 0.815854 -0.00199775
0.314194 0.504696 -0.0608508
0.35527 0.564228 -0.05472
0.409726 0.638408 -0.0446675
0.183116 0.345923 -0.239955
0.104656 0.337314 -0.264649
0.2524 0.357432 -0.203079
0.304777 0.464645 -0.064289
0.304701 0.448578 -0.0811211
0.336932 0.350077 -0.161462
0.342674 0.402231 -0.0959948
0.341016 0.437369 -0.055809
0.0524299 0.336562 -0.264667
-0.0026139 0.337229 -0.264588
-0.0576428 0.338281 -0.264894
-0.109824 0.340661 -0.26509
-0.188088 0.351693 -0.240708
-0.257115 0.365355 -0.204119
-0.302953 0.424563 -0.119618
-0.306705 0.474153 -0.0655374
-0.307066 0.458086 -0.0823691
-0.314887 0.514473 -0.0621356
-0.40629 0.651097 -0.0463257
-0.354124 0.575241 -0.05617
-0.635598 0.923997 0.0389102
-0.54784 0.833016 -0.00425516
-0.471415 0.742048 -0.0326631
-0.753838 1 0.104536
-0.704248 0.979656 0.075168
-0.796269 0.99967 0.130815
-0.831603 0.978738 0.154034
-0.911136 0.395702 0.32762
-0.917689 0.526618 0.309613
-0.915095 0.675565 0.284405
-0.898447 0.803226 0.242892
-0.834827 0.973373 0.145279
-0.867769 0.909588 0.185073
-0.899982 0.425872 0.321409
-0.693914 0.155775 0.0659903
-0.654462 0.218397 0.109884
-0.719721 0.0913296 0.0387756
-0.613764 0.259867 0.150614
-0.693669 0.0677187 -0.0351043
-0.707069 -0.153542 -0.140054
-0.697995 -0.061747 -0.130968
-0.668792 0.0289769 -0.135318
-0.686107 -0.241573 -0.17379
-0.640631 0.200494 0.227051
-0.904235 0.512362 0.310549
-0.704744 0.539938 0.347554
-0.740671 0.620389 0.30946
-0.829345 0.626202 0.310531
-0.786247 0.722187 0.262765
-0.860898 0.569894 0.325901
-0.619806 0.518585 0.331866
-0.59621 0.477555 0.347419
-0.630264 0.399924 0.40246
-0.575175 0.44323 0.360274
-0.582934 0.335118 0.419941
-0.608595 0.370794 0.410115
-0.55331 0.292882 0.431933
-0.603638 0.239585 0.445766
-0.592774 0.205756 0.443448
-0.601363 0.176357 0.430428
-0.586852 0.174246 0.369268
-0.593015 0.213153 0.273044
-0.640796 -0.32285 -0.235629
-0.511768 -0.440581 -0.377344
-0.589203 -0.384934 -0.310788
-0.444639 -0.473094 -0.434276
-0.387786 -0.696918 -0.473905
-0.409394 -0.513372 -0.479356
-0.37962 -0.643486 -0.523886
-0.378519 -0.739802 -0.441025
-0.394703 -0.701752 -0.345143
-0.358148 -0.776042 -0.40533
-0.256603 -0.681983 -0.23908
-0.309085 -0.61561 -0.104175
-0.28787 -0.622298 -0.120462
-0.251857 -0.664172 -0.195909
-0.235206 -0.707619 -0.334717
-0.244835 -0.528772 -0.224041
-0.338212 -0.601795 -0.291503
-0.377917 -0.681188 -0.332398
-0.124967 -0.806346 -0.619988
-0.112928 -0.853703 -0.603065
-0.232434 -0.736247 -0.388167
-0.213418 -0.748392 -0.42787
-0.189971 -0.76055 -0.497528
-0.20745 -0.751904 -0.462029
-0.149347 -0.757735 -0.535321
-0.116454 -0.786094 -0.603248
-0.183537 -0.760146 -0.510732
-0.117795 -0.799787 -0.616024
-0.0203793 -0.851518 -0.612573
0.0720187 -0.856578 -0.602691
0.0855954 -0.809613 -0.619554
0.1641 -0.802785 -0.579111
0.222866 -0.78621 -0.488216
0.197687 -0.714337 -0.33383
0.194236 -0.742874 -0.387293
0.175025 -0.754431 -0.427087
0.192971 -0.683176 -0.207393
0.179726 -0.712997 -0.321954
0.23807 -0.563114 -0.136101
0.202223 -0.539473 -0.136101
0.134657 -0.5359 -0.125002
0.133843 -0.502389 -0.198019
0.141061 -0.479378 -0.233262
0.192504 -0.554567 -0.346593
0.185844 -0.64739 -0.215995
0.196994 -0.675791 -0.209094
0.611322 0.202593 0.0193677
0.601018 0.0739228 -0.154052
0.614729 0.136428 -0.0600554
0.630699 -0.226853 -0.233518
0.640769 -0.177593 -0.218106
0.637123 -0.103805 -0.212079
0.618076 -0.0330761 -0.216356
0.577044 0.0190038 -0.234167
0.590543 -0.300322 -0.286186
0.528629 -0.355804 -0.360727
0.447201 -0.412504 -0.418619
0.370157 -0.437687 -0.457838
0.329534 -0.481788 -0.4901
0.320659 -0.599397 -0.56398
0.638793 0.139378 0.319452
0.534687 0.313673 0.107338
0.572463 0.269284 0.067483
0.521306 0.273891 0.232295
0.581458 0.194908 0.275436
0.498011 0.335797 0.138891
0.169404 -0.848037 -0.561478
0.179169 -0.852301 -0.565589
0.196738 -0.840065 -0.591495
0.207181 -0.817451 -0.613252
0.173247 -0.828134 -0.5613
0.166451 -0.606359 -0.433689
0.158827 -0.656537 -0.505408
0.132081 -0.72576 -0.603475
0.0993527 -0.784717 -0.602147
0.0710391 -0.816692 -0.618238
0.209923 -0.777443 -0.658235
0.276313 -0.67097 -0.628939
0.201002 -0.728459 -0.694578
0.625743 0.13094 0.405538
0.573698 0.156209 0.371636
0.642984 0.137077 0.430611
0.915547 0.498137 0.313352
0.917689 0.64709 0.288125
0.817188 0.882692 0.1713
0.849732 0.819048 0.210868
0.662343 0.678055 0.228636
0.608324 0.587013 0.256707
0.720645 0.784448 0.191736
0.566752 0.523014 0.278269
0.87806 0.882453 0.188646
0.905201 0.775197 0.246569
0.515596 0.45521 0.305471
0.53761 0.486102 0.293277
0.574573 0.317124 0.42229
0.623815 0.257995 0.439709
0.551036 0.398388 0.372645
0.527861 0.364517 0.383401
0.625424 0.174552 0.446825
0.84729 0.947247 0.148711
0.812893 0.969561 0.126758
0.772701 0.971427 0.101171
0.658005 0.900129 0.037466
0.726733 0.952833 0.0719861
0.487192 0.725711 -0.0269485
0.566511 0.81326 -0.00232816
0.324275 0.503154 -0.0522052
0.365788 0.563261 -0.0447896
0.420094 0.637459 -0.0363833
0.250863 0.276247 -0.290524
0.191509 0.260094 -0.330244
0.119363 0.236734 -0.366649
0.34852 0.277556 -0.231922
0.334657 0.455333 -0.0355387
0.334748 0.467563 -0.0144729
0.346817 0.50231 -0.014834
0.431561 0.319657 -0.092434
0.447472 0.249937 -0.16003
0.412393 0.380725 -0.0354165
0.395321 0.420959 0.000878164
0.380313 0.440367 0.0164616
0.0655093 0.233797 -0.372553
-0.00400015 0.233736 -0.374364
-0.0734795 0.235951 -0.372829
-0.127243 0.240576 -0.367145
-0.198771 0.266163 -0.33104
-0.257748 0.284158 -0.291546
-0.355556 0.288496 -0.233353
-0.34201 0.360626 -0.162851
-0.346394 0.412944 -0.097396
-0.343818 0.448009 -0.0572101
-0.325057 0.513237 -0.0535148
-0.336977 0.465771 -0.0369091
-0.336781 0.478007 -0.0158434
-0.416717 0.650461 -0.0380842
-0.364717 0.574623 -0.0462706
-0.55774 0.83074 -0.0046162
-0.646643 0.920412 0.0348107
-0.713848 0.975227 0.0690493
-0.481089 0.740751 -0.0289247
-0.759338 0.99524 0.0980568
-0.799659 0.994634 0.123473
-0.901353 0.660556 0.287795
-0.876041 0.742543 0.261125
-0.841502 0.845326 0.207436
-0.772071 0.930311 0.142807
-0.806848 0.907918 0.168002
-0.621584 0.221756 0.0168532
-0.58087 0.287198 0.0651336
-0.626737 0.155732 -0.0625881
-0.571844 0.280181 0.188255
-0.541888 0.330401 0.105154
-0.614592 0.0928224 -0.156524
-0.66186 -0.157341 -0.220755
-0.653275 -0.2069 -0.236143
-0.655955 -0.083706 -0.214698
-0.634693 -0.0136073 -0.218902
-0.61521 -0.281594 -0.288639
-0.69641 0.674464 0.267977
-0.653214 0.584223 0.305379
-0.747615 0.782368 0.222187
-0.568137 0.540648 0.27595
-0.540231 0.502842 0.291093
-0.607616 0.605907 0.254235
-0.519226 0.471289 0.30336
-0.556685 0.415612 0.370381
-0.505152 0.44602 0.312764
-0.534626 0.38103 0.381229
-0.542431 0.24924 0.427326
-0.50901 0.339468 0.392787
-0.550252 0.204171 0.406125
-0.536615 0.220691 0.327063
-0.530271 0.290227 0.23016
-0.554742 -0.338973 -0.362923
-0.3985 -0.425738 -0.459404
-0.47488 -0.398174 -0.420503
-0.338182 -0.767678 -0.546579
-0.359127 -0.471094 -0.491502
-0.353612 -0.58891 -0.565351
-0.312084 -0.548253 -0.582678
-0.333405 -0.717653 -0.592608
-0.330211 -0.796385 -0.515791
-0.338122 -0.751286 -0.403445
-0.34671 -0.771385 -0.39975
-0.312747 -0.816411 -0.481859
-0.217275 -0.706818 -0.322755
-0.230038 -0.676605 -0.20825
-0.271867 -0.545634 -0.144092
-0.271686 -0.555185 -0.137141
-0.221766 -0.641063 -0.216827
-0.217381 -0.608635 -0.225718
-0.23382 -0.669104 -0.209969
-0.165365 -0.497733 -0.198619
-0.235116 -0.532675 -0.137007
-0.258064 -0.525339 -0.27122
-0.304219 -0.625131 -0.348447
-0.22502 -0.548075 -0.347437
-0.0195806 -0.802393 -0.631197
-0.216069 -0.736682 -0.380452
-0.195878 -0.750876 -0.424236
-0.175702 -0.759858 -0.496311
-0.190167 -0.754009 -0.459166
-0.136314 -0.759136 -0.533798
-0.134732 -0.753862 -0.514855
-0.0193396 -0.783708 -0.608192
-0.0194752 -0.794984 -0.6232
-0.0705261 -0.763517 -0.522118
0.0786033 -0.802846 -0.615632
0.154984 -0.788064 -0.571848
0.151488 -0.765873 -0.496837
0.169088 -0.757766 -0.461258
0.177843 -0.7428 -0.379651
0.157395 -0.756365 -0.423532
0.151729 -0.759332 -0.458474
0.187456 -0.703245 -0.320553
0.197055 -0.550095 -0.133813
0.182499 -0.61484 -0.224904
-0.016115 -0.513433 -0.128361
0.133919 -0.540317 -0.120676
-0.0149999 -0.449288 -0.183721
-0.0146684 -0.432909 -0.221649
0.130649 -0.479017 -0.315989
0.177903 -0.682179 -0.332306
0.485113 0.337571 0.0170611
0.513637 0.273083 -0.0378026
0.531327 0.200213 -0.108336
0.521397 0.0596975 -0.269213
0.536088 0.124975 -0.19258
0.58973 -0.184495 -0.283769
0.544376 -0.255976 -0.331175
0.588267 -0.127459 -0.283243
0.573322 -0.0761559 -0.290842
0.541347 -0.0361353 -0.309118
0.492466 -0.321553 -0.383976
0.4183 -0.380712 -0.435677
0.324697 -0.40562 -0.478365
0.280487 -0.557461 -0.581473
0.30996 -0.464223 -0.495025
0.458833 0.380082 0.0545366
0.434755 0.40053 0.0746111
0.479944 0.275011 0.278318
0.525104 0.20419 0.329217
0.467167 0.344803 0.174452
0.0574477 -0.831389 -0.628126
0.0660367 -0.836522 -0.63105
0.0787844 -0.829486 -0.65077
0.0638065 -0.808316 -0.635253
0.116952 -0.56424 -0.418723
0.0986142 -0.634975 -0.511741
0.0671368 -0.684895 -0.625862
0.0343788 -0.750485 -0.620318
0.0207719 -0.785727 -0.635039
0.00196684 -0.765916 -0.664347
0.0890309 -0.799518 -0.686606
0.0955403 -0.756346 -0.715368
0.240195 -0.627242 -0.648182
0.174362 -0.691405 -0.720722
0.588133 0.157641 0.432661
0.537896 0.187266 0.40834
0.494561 0.232487 0.367218
0.580436 0.187297 0.445662
0.783237 0.906137 0.14597
0.622579 0.697022 0.181414
0.6835 0.799065 0.152646
0.561991 0.606207 0.20251
0.74477 0.912335 0.116198
0.482446 0.500205 0.21982
0.515264 0.540617 0.215298
0.500709 0.430394 0.314795
0.455519 0.447886 0.241687
0.462511 0.469301 0.228624
0.543607 0.275824 0.434166
0.592324 0.220765 0.44803
0.483591 0.400212 0.322994
0.500919 0.323768 0.394837
0.659363 0.882196 0.0487056
0.701807 0.901286 0.0819592
0.44146 0.635049 0.0050509
0.508634 0.72267 0.00696587
0.567295 0.796018 0.0107776
0.387531 0.561579 -0.00220562
0.366315 0.186844 -0.308677
0.270075 0.184342 -0.373777
0.206788 0.161875 -0.418282
0.139419 0.129557 -0.448917
0.458005 0.167816 -0.244789
0.377662 0.452861 0.0362914
0.370775 0.468591 0.0470171
0.38182 0.502163 0.0512263
0.42047 0.559137 0.0729959
0.419069 0.407621 0.101868
0.0836516 0.115363 -0.465162
-0.00561241 0.117504 -0.467334
-0.0949217 0.118134 -0.465523
-0.150282 0.134048 -0.449505
-0.216733 0.168465 -0.419145
-0.279476 0.192871 -0.374891
-0.375852 0.19839 -0.310188
-0.455623 0.263979 -0.161872
-0.437828 0.333172 -0.094202
-0.417004 0.39361 -0.037105
-0.398831 0.4333 -0.000731195
-0.383281 0.452243 0.0149076
-0.347765 0.513103 -0.0162537
-0.380327 0.464645 0.0347557
-0.37302 0.480149 0.0454997
-0.438325 0.648717 0.0032643
-0.502742 0.738401 0.00490393
-0.386672 0.573601 -0.00379018
-0.559097 0.813529 0.00848952
-0.648601 0.902521 0.0460566
-0.690567 0.922926 0.0791263
-0.733298 0.93531 0.113181
-0.713487 0.806732 0.188811
-0.675736 0.820192 0.149874
-0.521531 0.289156 -0.0399072
-0.491245 0.352745 0.0150728
-0.541181 0.216873 -0.11052
-0.547931 0.141819 -0.194795
-0.504685 0.351375 0.136841
-0.463805 0.394411 0.0526519
-0.592006 0.0371755 -0.236547
-0.610811 -0.16584 -0.28621
-0.56749 -0.238698 -0.333438
-0.607571 -0.108883 -0.285684
-0.591011 -0.0580576 -0.293222
-0.517433 -0.305853 -0.386026
-0.658666 0.698588 0.225938
-0.515881 0.556635 0.213205
-0.484343 0.515226 0.217849
-0.560483 0.623644 0.200216
-0.465417 0.483716 0.226721
-0.459149 0.462093 0.239833
-0.489014 0.415324 0.321018
-0.45698 0.439449 0.262043
-0.470767 0.379219 0.328158
-0.499261 0.295152 0.387439
-0.505363 0.248034 0.365181
-0.48909 0.290062 0.276341
-0.47372 0.35942 0.172536
-0.44494 -0.367289 -0.437421
-0.351984 -0.395103 -0.479748
-0.246764 -0.810396 -0.61417
-0.24809 -0.770333 -0.659164
-0.339011 -0.454127 -0.496341
-0.31124 -0.661853 -0.630145
-0.27372 -0.619257 -0.649234
-0.261772 -0.514742 -0.588044
-0.22939 -0.58002 -0.659966
-0.237497 -0.721643 -0.695477
-0.23712 -0.833316 -0.59237
-0.277096 -0.653655 -0.430488
-0.302034 -0.79447 -0.477356
-0.302967 -0.809056 -0.4785
-0.273947 -0.675357 -0.473948
-0.24607 -0.757056 -0.531791
-0.220032 -0.84611 -0.566403
-0.224688 -0.696845 -0.321397
-0.230294 -0.54345 -0.134688
-0.214443 -0.676079 -0.333108
-0.190725 -0.594196 -0.225926
-0.184908 -0.65828 -0.329988
-0.16752 -0.531201 -0.12562
-0.171724 -0.474526 -0.233898
-0.160965 -0.474495 -0.316576
-0.200233 -0.600663 -0.434423
-0.223468 -0.72606 -0.381853
-0.20504 -0.742513 -0.424719
-0.17971 -0.752522 -0.511858
-0.190228 -0.752687 -0.503604
-0.20275 -0.745768 -0.457116
-0.0684467 -0.763486 -0.503665
-0.140367 -0.744789 -0.5311
-0.146425 -0.746569 -0.527
0.077639 -0.789104 -0.602857
-0.0191587 -0.760745 -0.517419
0.111121 -0.761786 -0.534795
0.145115 -0.765255 -0.510052
0.137249 -0.764722 -0.495662
0.185557 -0.732417 -0.381009
0.166813 -0.748288 -0.423966
0.164568 -0.751482 -0.456376
0.15631 -0.599592 -0.225216
0.148927 -0.663469 -0.329309
-0.0164013 -0.53218 -0.125994
0.0685532 -0.594863 -0.221557
-0.0145328 -0.434885 -0.301164
0.176757 -0.72294 -0.403335
0.162473 -0.699659 -0.409472
0.454223 0.0926268 -0.315462
0.495555 -0.00250248 -0.340682
0.547314 -0.180487 -0.333469
0.507233 -0.236073 -0.367041
0.466097 -0.291793 -0.399132
0.548052 -0.141115 -0.331285
0.537294 -0.105671 -0.338351
0.509523 -0.0777345 -0.358946
0.386748 -0.345574 -0.448104
0.320704 -0.357493 -0.475214
0.255549 -0.361335 -0.49595
0.242681 -0.408484 -0.500049
0.235448 -0.434824 -0.506632
0.231259 -0.522396 -0.587034
0.19716 -0.586652 -0.659091
0.45808 0.293409 0.309399
0.442153 0.340722 0.214019
0.42939 0.350965 0.239245
-0.00375908 -0.79105 -0.662254
-0.000398847 -0.794966 -0.667907
-0.0157383 -0.524073 -0.396122
-0.0168533 -0.609749 -0.500814
-0.0177423 -0.68027 -0.600323
-0.0185711 -0.734259 -0.608504
-0.0190382 -0.768449 -0.633504
-0.0186314 -0.744428 -0.652654
-0.0016043 -0.784179 -0.687646
-0.00164951 -0.767164 -0.700727
-0.00228234 -0.729676 -0.726987
0.0866196 -0.716087 -0.740625
0.0761474 -0.671692 -0.755554
0.142221 -0.65363 -0.73704
0.531387 0.232549 0.42951
0.489814 0.279783 0.389459
0.579846 0.709651 0.129138
0.513983 0.621545 0.145401
0.64244 0.802907 0.107999
0.427025 0.501472 0.129457
0.463038 0.552157 0.145505
0.452565 0.425316 0.263897
0.418134 0.430633 0.179621
0.415453 0.450915 0.153312
0.411158 0.467716 0.132051
0.464198 0.364694 0.330061
0.4557 0.329091 0.325539
0.600957 0.791258 0.0695449
0.473811 0.631158 0.0795792
0.541859 0.71821 0.0709952
0.372222 0.105023 -0.373532
0.288669 0.0951841 -0.429448
0.223695 0.0672658 -0.470754
0.167672 0.0326234 -0.502882
0.116018 0.000740313 -0.528689
0.396241 0.436855 0.100418
0.411731 0.401356 0.136328
0.395698 0.447226 0.106237
-0.00723979 0.00598377 -0.521139
-0.130558 0.00456441 -0.529185
-0.181307 0.0380444 -0.503585
-0.236367 0.0744244 -0.47169
-0.300602 0.10435 -0.430642
-0.384035 0.116776 -0.375068
-0.468356 0.182206 -0.246673
-0.439184 0.414101 0.0728307
-0.38301 0.514051 0.0496724
-0.419957 0.5722 0.0712764
-0.39966 0.449226 0.0987909
-0.423393 0.420721 0.100149
-0.416401 0.414223 0.134639
-0.398816 0.459579 0.10461
-0.413749 0.48054 0.130362
-0.428546 0.514773 0.127707
-0.471068 0.645836 0.0776519
-0.536343 0.734962 0.0687925
-0.593136 0.809809 0.0671223
-0.634392 0.822749 0.105393
-0.618134 0.716313 0.178881
-0.574812 0.727596 0.126789
-0.534972 0.076107 -0.271373
-0.55774 -0.0190466 -0.311363
-0.529608 -0.219951 -0.369152
-0.568077 -0.16316 -0.335745
-0.490099 -0.276926 -0.401077
-0.56761 -0.123788 -0.333542
-0.555706 -0.0886925 -0.340566
-0.527016 -0.0616308 -0.361057
-0.412257 -0.33316 -0.449731
-0.463021 0.566547 0.143621
-0.511797 0.63749 0.143303
-0.418646 0.463874 0.151624
-0.422051 0.443695 0.177902
-0.442439 0.406073 0.266986
-0.463353 0.343372 0.323655
-0.466774 0.307781 0.307521
-0.448993 0.354568 0.212196
-0.3465 -0.347128 -0.476572
-0.269998 -0.40053 -0.501083
-0.118654 -0.826414 -0.65118
-0.127816 -0.796159 -0.68704
-0.132863 -0.752791 -0.715839
-0.26355 -0.427078 -0.507654
-0.209621 -0.685434 -0.721505
-0.175973 -0.648944 -0.737639
-0.191207 -0.405743 -0.52161
-0.197325 -0.476245 -0.593801
-0.182513 -0.54988 -0.668917
-0.122105 -0.59914 -0.751773
-0.1223 -0.713071 -0.740986
-0.193874 -0.651048 -0.506137
-0.213388 -0.822119 -0.562084
-0.210178 -0.842133 -0.562249
-0.168891 -0.721086 -0.604092
-0.138031 -0.781046 -0.60263
-0.110653 -0.813878 -0.618599
-0.106208 -0.833861 -0.631393
-0.166932 -0.535643 -0.121295
-0.214277 -0.71687 -0.404137
-0.102877 -0.592208 -0.2219
-0.176365 -0.651458 -0.334417
-0.199238 -0.694043 -0.410212
-0.149513 -0.560116 -0.419267
-0.201047 -0.734571 -0.438963
-0.162683 -0.7367 -0.531118
-0.168017 -0.729603 -0.526884
-0.199148 -0.738022 -0.510261
-0.203186 -0.737826 -0.475336
-0.0191738 -0.760415 -0.505739
-0.0703151 -0.749763 -0.520435
-0.143592 -0.729903 -0.543942
0.0321033 -0.765114 -0.52191
0.0980568 -0.762783 -0.533315
0.0965651 -0.75746 -0.514378
0.141543 -0.757521 -0.511209
0.152016 -0.758004 -0.502906
0.163136 -0.740224 -0.438222
0.165306 -0.743553 -0.474596
0.161418 -0.743632 -0.50952
0.140609 -0.656384 -0.333781
0.051782 -0.65259 -0.344947
0.145084 -0.688181 -0.418649
-0.0171396 -0.591559 -0.221043
0.156913 -0.719085 -0.451316
0.373925 0.0252875 -0.433854
0.44131 0.0232806 -0.382153
0.472365 -0.0534015 -0.388027
0.507444 -0.176596 -0.35946
0.476403 -0.222319 -0.379846
0.444594 -0.268317 -0.398655
0.51222 -0.149369 -0.355844
0.507383 -0.125489 -0.360561
0.483124 -0.106968 -0.383102
0.453153 -0.0902405 -0.408927
0.361885 -0.314652 -0.447877
0.311196 -0.322067 -0.46578
0.261094 -0.328773 -0.482776
0.173171 -0.353412 -0.512402
0.163844 -0.411255 -0.520882
0.197145 -0.332346 -0.498703
0.168063 -0.481923 -0.593061
0.151277 -0.555081 -0.668238
0.0902515 -0.602395 -0.751308
0.0871776 -0.608018 -0.750568
0.428878 0.375512 0.250093
0.408491 0.405168 0.156763
-0.0189176 -0.764361 -0.667859
-0.0188272 -0.756873 -0.655744
-0.0187971 -0.758488 -0.677079
-0.132984 -0.631372 -0.512206
-0.102621 -0.682258 -0.626211
-0.0719275 -0.748827 -0.620533
-0.0593757 -0.784479 -0.635205
-0.0398473 -0.765267 -0.664426
-0.0186916 -0.752608 -0.686318
-0.0185259 -0.744501 -0.706662
-0.00217692 -0.688316 -0.745404
0.0480149 -0.631641 -0.758374
0.436955 0.392405 0.268761
0.409365 0.419093 0.163193
0.302532 0.0130629 -0.475924
0.246086 -0.0128548 -0.504852
0.196542 -0.0407732 -0.521035
0.161403 -0.0783402 -0.534147
-0.00838497 -0.070833 -0.543594
0.0873581 -0.0795149 -0.543851
0.132909 -0.133577 -0.547405
-0.104354 -0.0765292 -0.544242
-0.212378 -0.0344161 -0.521867
-0.178369 -0.0730477 -0.53482
-0.151548 -0.129166 -0.547993
-0.261078 -0.0049559 -0.505892
-0.316815 0.0226931 -0.477172
-0.466623 0.106938 -0.317347
-0.455593 0.0372184 -0.383989
-0.387967 0.0371265 -0.435402
-0.413131 0.417943 0.155087
-0.43602 0.364425 0.237483
-0.413583 0.431868 0.161505
-0.510788 0.0131362 -0.342732
-0.498327 -0.20717 -0.381835
-0.527996 -0.160504 -0.361571
-0.467874 -0.254141 -0.400521
-0.531944 -0.133143 -0.357967
-0.526353 -0.109409 -0.362672
-0.50143 -0.0916722 -0.385108
-0.488984 -0.0384543 -0.389991
-0.386431 -0.303021 -0.449401
-0.434814 0.388942 0.248331
-0.28142 -0.35299 -0.497032
-0.335937 -0.312003 -0.467089
-0.198756 -0.347624 -0.513154
-0.0383707 -0.794378 -0.667993
-0.0361255 -0.766625 -0.700782
-0.0367433 -0.783634 -0.687719
-0.0342118 -0.729181 -0.727048
-0.110125 -0.668828 -0.755964
-0.119211 -0.604854 -0.75102
-0.0807725 -0.629671 -0.758662
-0.142431 -0.354391 -0.555769
-0.149634 -0.272208 -0.543728
-0.146078 -0.434083 -0.621573
-0.135997 -0.5414 -0.714677
-0.121668 -0.597635 -0.751926
-0.119498 -0.595328 -0.751834
-0.119347 -0.599819 -0.749803
-0.0323886 -0.687845 -0.745477
-0.103089 -0.805728 -0.635596
-0.0974829 -0.828978 -0.628444
-0.0874025 -0.650418 -0.345235
-0.0179232 -0.657424 -0.338272
-0.181473 -0.683103 -0.41931
-0.194131 -0.713628 -0.452038
-0.143712 -0.715842 -0.542566
-0.165245 -0.72097 -0.512867
-0.140427 -0.705778 -0.530892
-0.164943 -0.712135 -0.489378
0.0299637 -0.76501 -0.503469
-0.0189477 -0.747334 -0.520613
0.0323144 -0.75136 -0.520221
-0.0787985 -0.730851 -0.538785
-0.0819026 -0.713566 -0.541556
0.102532 -0.748558 -0.530604
0.108529 -0.750528 -0.526474
0.125089 -0.741173 -0.530531
0.128073 -0.725534 -0.512267
0.127952 -0.716687 -0.488791
0.130634 -0.73424 -0.526266
0.0737061 -0.680931 -0.431455
-0.0183752 -0.698699 -0.427992
0.130513 -0.716717 -0.458456
0.372071 -0.0373101 -0.46682
0.426874 -0.0364474 -0.426799
0.311558 -0.0501037 -0.502203
0.488593 -0.171927 -0.352632
0.456724 -0.21174 -0.371678
0.424855 -0.251546 -0.390694
0.34867 -0.292564 -0.435451
0.491517 -0.14943 -0.350943
0.48894 -0.130175 -0.355073
0.469352 -0.114084 -0.381187
0.445951 -0.099932 -0.407226
0.412816 -0.0765292 -0.440192
0.3044 -0.302207 -0.451977
0.26016 -0.31185 -0.468521
0.197039 -0.317472 -0.486711
0.126536 -0.276503 -0.543171
0.116832 -0.358411 -0.555243
0.161072 -0.330927 -0.508982
0.149801 -0.305254 -0.519707
0.164748 -0.320152 -0.503481
0.118278 -0.438195 -0.621028
0.1055 -0.544912 -0.714224
0.0898593 -0.60089 -0.751473
0.0874634 -0.603 -0.74935
0.0877497 -0.59851 -0.751369
0.0442031 -0.622885 -0.751895
0.0821746 -0.606029 -0.751143
-0.03492 -0.790554 -0.662315
-0.0184354 -0.739619 -0.713894
-0.00395493 -0.687679 -0.749001
0.011957 -0.652676 -0.759476
0.263098 -0.0687282 -0.520509
0.219958 -0.0925777 -0.526988
0.186115 -0.130127 -0.540155
0.152166 -0.203058 -0.542761
-0.00986165 -0.169639 -0.571879
0.0583067 -0.175335 -0.56778
-0.0781958 -0.173206 -0.568049
0.1066 -0.221126 -0.571879
-0.127861 -0.217479 -0.572344
-0.237361 -0.0854804 -0.527906
-0.204648 -0.124057 -0.540938
-0.172974 -0.19801 -0.543428
-0.279763 -0.0602908 -0.52161
-0.32771 -0.0401734 -0.503512
-0.442845 -0.0229318 -0.42858
-0.387937 -0.0254954 -0.468374
-0.478346 -0.197215 -0.373575
-0.50904 -0.156423 -0.354669
-0.447652 -0.237988 -0.392475
-0.51127 -0.133853 -0.352993
-0.508091 -0.114684 -0.35711
-0.4879 -0.0992101 -0.383144
-0.470857 -0.0758806 -0.410812
-0.372598 -0.281355 -0.436925
-0.286001 -0.320275 -0.48389
-0.222127 -0.325836 -0.499565
-0.328583 -0.292368 -0.453274
-0.173879 -0.300218 -0.520374
-0.185994 -0.32553 -0.509691
-0.189339 -0.31464 -0.504191
-0.114148 -0.603013 -0.751565
-0.0767191 -0.621038 -0.752164
-0.0464472 -0.641681 -0.749423
-0.0453623 -0.651789 -0.75961
-0.119242 -0.295171 -0.591421
-0.111572 -0.410607 -0.653695
-0.113033 -0.527866 -0.736991
-0.122873 -0.565898 -0.753853
-0.118202 -0.565042 -0.760938
-0.117614 -0.595946 -0.760198
-0.114691 -0.594533 -0.755089
-0.0305653 -0.687275 -0.749062
-0.109854 -0.678086 -0.431835
-0.16764 -0.712074 -0.459062
-0.0756342 -0.702039 -0.538062
-0.140804 -0.697536 -0.517254
-0.0840272 -0.692335 -0.522497
-0.0186162 -0.727522 -0.531296
0.0414602 -0.732723 -0.538546
0.106269 -0.733788 -0.543428
-0.01833 -0.708898 -0.531161
0.106811 -0.719746 -0.54207
0.103798 -0.709559 -0.53039
0.104385 -0.701336 -0.516758
0.05353 -0.703581 -0.47095
-0.0186464 -0.720786 -0.463142
0.0478044 -0.694385 -0.522241
0.3663 -0.0758255 -0.473917
0.314375 -0.0828127 -0.500936
0.475665 -0.168269 -0.344874
0.446192 -0.205622 -0.363951
0.416718 -0.242962 -0.383059
0.341995 -0.282983 -0.427582
0.478242 -0.145123 -0.344751
0.475589 -0.125128 -0.350582
0.459888 -0.112242 -0.369176
0.436955 -0.099467 -0.392928
0.409696 -0.0883928 -0.436968
0.299654 -0.292925 -0.442921
0.257297 -0.302868 -0.458279
0.200595 -0.310283 -0.482055
0.173835 -0.302446 -0.502472
0.0956308 -0.298518 -0.590981
0.0846458 -0.413654 -0.653291
0.151247 -0.290833 -0.514739
0.0833047 -0.530895 -0.736568
0.0920442 -0.569202 -0.753388
0.0858965 -0.599066 -0.759745
0.0829884 -0.597561 -0.754655
0.0656451 -0.597182 -0.758105
0.0133132 -0.642599 -0.749289
0.0119872 -0.62477 -0.755554
0.0235445 -0.612564 -0.75616
-0.0173053 -0.689276 -0.743531
0.00925987 -0.653612 -0.762382
-0.0167328 -0.653851 -0.759641
0.013042 -0.628104 -0.768458
0.267498 -0.0990449 -0.514978
0.231485 -0.125611 -0.521836
0.202449 -0.170496 -0.530666
0.174678 -0.237927 -0.521549
0.169675 -0.27673 -0.513846
0.0425456 -0.269192 -0.596903
-0.0113685 -0.270942 -0.604362
-0.0652372 -0.267522 -0.597118
-0.249943 -0.118134 -0.522816
-0.222278 -0.163894 -0.531522
-0.285127 -0.0904547 -0.516091
-0.196646 -0.232157 -0.522301
-0.192879 -0.271089 -0.514586
-0.174903 -0.285767 -0.5154
-0.331537 -0.0727786 -0.502246
-0.383326 -0.0641577 -0.475441
-0.429992 -0.0634357 -0.441912
-0.467663 -0.191409 -0.365817
-0.496051 -0.153168 -0.34685
-0.439289 -0.229655 -0.384802
-0.365667 -0.271982 -0.429032
-0.497904 -0.129949 -0.34674
-0.494589 -0.110058 -0.352558
-0.478437 -0.097656 -0.371091
-0.463956 -0.0857986 -0.40908
-0.323581 -0.283252 -0.444188
-0.2846 -0.303382 -0.46964
-0.221615 -0.310962 -0.487567
-0.197882 -0.296664 -0.503224
-0.0973171 -0.594679 -0.758466
-0.0557291 -0.611358 -0.756325
-0.0445486 -0.623913 -0.755676
-0.0456486 -0.627199 -0.768592
-0.0426802 -0.652817 -0.762486
-0.0639715 -0.395195 -0.674099
-0.116258 -0.553606 -0.756478
-0.0691549 -0.517337 -0.758283
-0.106856 -0.596882 -0.769149
-0.0701494 -0.583109 -0.775989
-0.0807574 -0.546326 -0.7729
-0.0827765 -0.533471 -0.768048
-0.0902353 -0.701336 -0.471237
-0.0180738 -0.690347 -0.513277
-0.0181793 -0.699255 -0.527949
0.0451068 -0.715543 -0.541305
0.0392001 -0.70382 -0.537836
0.36398 -0.0874995 -0.471837
0.312627 -0.09445 -0.491654
0.226784 -0.142241 -0.497497
0.405447 -0.090834 -0.420455
0.198199 -0.309035 -0.473721
0.177798 -0.295997 -0.495087
0.173729 -0.293378 -0.485456
0.0376332 -0.396773 -0.673885
0.0398633 -0.519007 -0.758044
0.0858212 -0.556709 -0.756025
0.0874334 -0.568193 -0.760486
0.0751531 -0.599666 -0.768757
0.0273868 -0.608874 -0.771499
-0.0163108 -0.627829 -0.767521
0.268176 -0.109985 -0.504313
0.232932 -0.142406 -0.510065
0.205538 -0.182928 -0.519047
0.179997 -0.237095 -0.51228
0.174392 -0.273395 -0.504974
-0.0131315 -0.393702 -0.681148
-0.225789 -0.176223 -0.519934
-0.251962 -0.134874 -0.511044
-0.286197 -0.101364 -0.505439
